# .PCD v0.7 - Point Cloud Data file format
VERSION 0.7
FIELDS x y z
SIZE 4 4 4
TYPE F F F
COUNT 1 1 1
WIDTH 1401
HEIGHT 1
VIEWPOINT 0 0 0 1 0 0 0
POINTS 1401
DATA ascii
-1.3255671 -1.9254643 0.012325401
-1.2738845 -1.9240094 0.011872774
-1.2237875 -1.92409 0.011831551
-1.1750604 -1.9239315 0.012032019
-1.1250334 -1.9236573 0.012227337
-1.0748031 -1.9240984 0.012408167
-1.0282569 -1.9261457 0.012894087
-0.97588986 -1.9290015 0.012880291
-0.91912359 -1.9213465 0.013255463
-0.88665128 -1.9332517 0.013197493
-0.81868678 -1.9264985 0.012882508
-0.77975434 -1.9273425 0.012897156
-0.72744119 -1.921433 0.012570193
-0.67604852 -1.9239533 0.012981475
-0.62244815 -1.9241354 0.01327444
-0.57468361 -1.9235357 0.013356828
-0.52860105 -1.9250239 0.012742454
-0.47422215 -1.9230943 0.013513467
-0.41966227 -1.9233034 0.012621026
-0.3828561 -1.9258702 0.012015206
-0.32806215 -1.9279721 0.012066917
-0.27825958 -1.9254478 0.012178299
-0.22589163 -1.9245192 0.012141461
-0.17262878 -1.9227424 0.011546945
-0.12510335 -1.9259142 0.011873715
-0.074726775 -1.9242907 0.011873547
-0.024673468 -1.9255465 0.012021006
0.02426175 -1.9254963 0.011676555
0.074972846 -1.925171 0.012097796
0.12501927 -1.9245893 0.011375702
0.17453171 -1.9246238 0.011547438
0.22497253 -1.9256619 0.011749537
0.27553865 -1.9245569 0.011649812
0.32569209 -1.9245677 0.011512396
0.37369409 -1.9248987 0.011272953
0.42517093 -1.9251435 0.011267148
0.47551891 -1.9247427 0.011052188
0.52518928 -1.9253764 0.011090059
0.57467324 -1.923894 0.01168485
0.6221953 -1.9256959 0.011675754
0.67429698 -1.9250144 0.011456956
0.72556293 -1.926535 0.01148027
0.77504891 -1.9223472 0.011647206
0.82604474 -1.9252511 0.011206813
0.87508589 -1.9233174 0.011424826
0.92469853 -1.9240125 0.011406916
0.97635722 -1.9258552 0.012021505
1.0247597 -1.9253244 0.012110373
1.0780005 -1.9231995 0.012094703
1.1266017 -1.9256253 0.011506203
1.17484 -1.9246756 0.011364016
1.2252105 -1.925796 0.011505022
1.2753958 -1.924432 0.011955635
1.3252815 -1.9261168 0.011682107
1.3770709 -1.9259846 0.012095813
1.4215555 -1.9214187 0.011924341
1.4742504 -1.9241596 0.01207032
-1.4762504 -1.8729568 0.012426967
-1.426897 -1.8757833 0.011845673
-1.3745849 -1.8743509 0.011948095
-1.3230929 -1.8751241 0.012071791
-1.2739936 -1.8756776 0.011697412
-1.2242959 -1.8740951 0.012300167
-1.1757057 -1.8752222 0.012288276
-1.1270399 -1.8755277 0.012039209
-1.0761771 -1.8779883 0.012506704
-1.0279989 -1.8756443 0.013366248
-0.97533369 -1.8705295 0.012841065
-0.92381608 -1.8767413 0.013152747
-0.88101923 -1.8776001 0.01285691
-0.82811928 -1.8731772 0.012954052
-0.77796102 -1.8746978 0.012722258
-0.72055966 -1.8745062 0.012874807
-0.68021506 -1.8757395 0.012857909
-0.6236015 -1.8739219 0.013025652
-0.57339835 -1.877715 0.012943781
-0.52191305 -1.8758856 0.013352223
-0.47413695 -1.8757348 0.012896377
-0.42036605 -1.8775302 0.012607913
-0.37489051 -1.8756415 0.011990093
-0.32725492 -1.8731651 0.012298489
-0.27699548 -1.8759325 0.012083223
-0.22332792 -1.8751165 0.011915185
-0.17582728 -1.8746186 0.011617611
-0.12430391 -1.876019 0.011628801
-0.075265191 -1.8745048 0.012052579
-0.024840737 -1.876247 0.011893967
0.024469513 -1.8753853 0.01152788
0.075004585 -1.8752137 0.011573713
0.12620629 -1.8750948 0.011521022
0.17468125 -1.8750734 0.01148257
0.22521609 -1.8748788 0.011338533
0.27482337 -1.8744239 0.011609281
0.32442147 -1.8752867 0.011624431
0.37486994 -1.8745118 0.01127525
0.42495954 -1.8760085 0.01114205
0.4748432 -1.8748262 0.011053017
0.5253737 -1.8752506 0.011175964
0.57444602 -1.8757285 0.011272203
0.62470722 -1.8771039 0.011521186
0.67257792 -1.8742617 0.011673189
0.72445869 -1.8742161 0.011520172
0.77606213 -1.8713895 0.011542143
0.82525665 -1.875528 0.011163455
0.87521249 -1.8747988 0.011289564
0.92381662 -1.8749181 0.011980466
0.97567028 -1.8743364 0.011785811
1.0238574 -1.874368 0.012282581
1.0746236 -1.8752427 0.011794116
1.1250912 -1.8742181 0.011246816
1.174301 -1.8759832 0.011288908
1.2249947 -1.8753597 0.011520158
1.275756 -1.8755393 0.011752908
1.3240899 -1.8757205 0.011928634
1.3753085 -1.8745781 0.011857446
1.4251629 -1.8757501 0.011682762
1.4744754 -1.8749422 0.012065483
-1.4753413 -1.8260964 0.012580168
-1.4235536 -1.8228971 0.012063807
-1.3762352 -1.822456 0.012322495
-1.3244631 -1.8245392 0.012834535
-1.2744582 -1.8278427 0.011372505
-1.2255979 -1.8248546 0.011736426
-1.1758395 -1.8242756 0.011486725
-1.1298585 -1.827912 0.012576086
-1.0779549 -1.8227592 0.013291917
-1.0291148 -1.8257121 0.013284143
-0.97352827 -1.8260618 0.01287605
-0.92123318 -1.8270285 0.012914895
-0.88409883 -1.8194243 0.012956789
-0.82597703 -1.8259473 0.013000675
-0.77364767 -1.8255903 0.012944409
-0.72452241 -1.8235648 0.013483319
-0.67702127 -1.8240739 0.013050267
-0.62159199 -1.8275912 0.012653491
-0.57611561 -1.8276587 0.013380533
-0.52677977 -1.8269826 0.012460085
-0.47451997 -1.8254076 0.01253247
-0.42479697 -1.8259355 0.012029867
-0.37277511 -1.8243014 0.012449592
-0.32566518 -1.8256167 0.012107258
-0.27496716 -1.8264657 0.011937856
-0.22334541 -1.8228812 0.011904173
-0.17449154 -1.8239235 0.011615446
-0.12554286 -1.8264993 0.011764647
-0.074657604 -1.8237346 0.011747329
-0.024963861 -1.8254575 0.011832511
0.025581524 -1.8248756 0.011509267
0.075278156 -1.8250647 0.011578296
0.1246865 -1.8251731 0.011792299
0.17547446 -1.8249506 0.011475826
0.22529182 -1.8252435 0.011614027
0.27531257 -1.8255143 0.01189294
0.324931 -1.8248662 0.011628099
0.37489995 -1.8242847 0.011347003
0.42490181 -1.8260884 0.011072925
0.47453284 -1.8252127 0.011009946
0.52552801 -1.8249599 0.011141124
0.57444447 -1.825595 0.011254634
0.62640816 -1.8249729 0.011385134
0.67652595 -1.8259319 0.011636346
0.72431141 -1.8238287 0.011971211
0.77550519 -1.824894 0.011477709
0.82543182 -1.8254439 0.011395002
0.87390703 -1.8266225 0.011425008
0.92447299 -1.8259693 0.011497416
0.97606486 -1.8245478 0.01148688
1.0247498 -1.8248867 0.011589332
1.0770546 -1.8247753 0.012620304
1.1252013 -1.824572 0.011458466
1.1730717 -1.8234448 0.01127826
1.2220944 -1.8250755 0.011419002
1.2751677 -1.8243237 0.011514553
1.3262284 -1.8246417 0.011786765
1.375055 -1.8233442 0.011952686
1.4252712 -1.8253714 0.011530641
1.4746552 -1.8249307 0.011582626
-1.475309 -1.7758332 0.012238568
-1.4234097 -1.7746696 0.011624013
-1.3770118 -1.7745085 0.011443042
-1.3260919 -1.7748408 0.012427602
-1.2786403 -1.7794279 0.012279723
-1.2252737 -1.7772909 0.012910882
-1.1743122 -1.7797043 0.013115375
-1.1279281 -1.7727684 0.01310322
-1.0731778 -1.7786291 0.013522387
-1.0247214 -1.7767448 0.013048001
-0.974635 -1.7756799 0.012753162
-0.91682774 -1.7707727 0.012829584
-0.87440515 -1.7745944 0.013325286
-0.82702106 -1.7736109 0.013544213
-0.77376407 -1.7780521 0.013024494
-0.71794838 -1.7747042 0.012585388
-0.6770184 -1.7745554 0.012953234
-0.63128269 -1.7757231 0.012365021
-0.58443105 -1.7721804 0.012585927
-0.52591652 -1.7758615 0.012523765
-0.47372606 -1.7745602 0.012233873
-0.42464048 -1.7754182 0.01271173
-0.37076092 -1.7759808 0.012341383
-0.32447386 -1.7769232 0.011833942
-0.27520818 -1.7767563 0.011900381
-0.22636002 -1.7738975 0.012128216
-0.17565355 -1.7741841 0.011930105
-0.12502249 -1.7770019 0.012051693
-0.074913099 -1.7749093 0.011618966
-0.023707695 -1.7741183 0.011624674
0.024453931 -1.7749214 0.011620815
0.074223556 -1.7755812 0.012113115
0.12563078 -1.7760091 0.011634514
0.1752107 -1.7749752 0.011615102
0.22304963 -1.7762512 0.012754797
0.272771 -1.7757229 0.011483066
0.3256776 -1.7752789 0.011570279
0.37522846 -1.7745317 0.011552526
0.42459106 -1.7759461 0.011351487
0.47437409 -1.7755278 0.011047798
0.52518839 -1.7750832 0.011168581
0.57406992 -1.773035 0.01127136
0.62335956 -1.7776129 0.011373258
0.67436785 -1.7747833 0.011470402
0.72531766 -1.7734196 0.011567785
0.7797274 -1.7733762 0.011765868
0.82458329 -1.7745298 0.011511107
0.875072 -1.7755212 0.011658304
0.92447835 -1.7744907 0.011770882
0.97491753 -1.7742145 0.011447469
1.0216293 -1.7750325 0.011596088
1.0748553 -1.7744594 0.012053447
1.1250238 -1.7751368 0.011778738
1.1749157 -1.7737936 0.01132841
1.2242939 -1.7747203 0.011644158
1.27519 -1.7744658 0.01171691
1.3247371 -1.7750506 0.011412176
1.375662 -1.774524 0.01161178
1.424912 -1.77548 0.011396422
1.4755986 -1.7750306 0.011552955
-1.4749149 -1.7256154 0.012169973
-1.4261812 -1.7239952 0.011821449
-1.3748572 -1.7245375 0.011936607
-1.3248788 -1.7261695 0.012429851
-1.2794074 -1.721452 0.012595307
-1.2253927 -1.7237198 0.013609037
-1.1766309 -1.7297047 0.013187326
-1.1278441 -1.7249659 0.013694708
-1.0710509 -1.7310565 0.013756105
-1.023295 -1.7182685 0.013072205
-0.97531909 -1.7239486 0.013355309
-0.91993654 -1.7273617 0.013099303
-0.87339002 -1.7216918 0.013853191
-0.82791728 -1.7274029 0.01295713
-0.77554125 -1.7272425 0.01266042
-0.72265136 -1.7249372 0.012511751
-0.67141742 -1.7246704 0.012911561
-0.63312691 -1.7297293 0.012654907
-0.57456315 -1.7238768 0.012761313
-0.52751052 -1.7240927 0.012839772
-0.47530276 -1.7265384 0.012616889
-0.43071041 -1.7258995 0.012030063
-0.37177333 -1.7233161 0.012247771
-0.32452303 -1.7227536 0.011826833
-0.27234417 -1.7279221 0.012221453
-0.22333618 -1.7234631 0.01161409
-0.17484301 -1.7243385 0.012059653
-0.12527736 -1.7263155 0.011826419
-0.074373081 -1.7244937 0.011385324
-0.024211975 -1.7254947 0.011729427
0.025594667 -1.7250223 0.011431852
0.074650586 -1.7251315 0.011428694
0.12406183 -1.7266937 0.011955912
0.1744751 -1.7244942 0.012026715
0.2264415 -1.7230175 0.012081444
0.27454007 -1.7255398 0.011982687
0.32318711 -1.7274654 0.011517286
0.37439692 -1.7230617 0.01154701
0.42479923 -1.7256339 0.011352913
0.47550362 -1.7242265 0.011215065
0.51929152 -1.7258273 0.011410974
0.573026 -1.7257509 0.011542225
0.62647647 -1.7261137 0.011363467
0.67595613 -1.7250245 0.011632421
0.72201514 -1.7248195 0.011739322
0.77617049 -1.7270607 0.011746255
0.8259626 -1.7252506 0.011712567
0.87461144 -1.7242693 0.011737312
0.92497963 -1.7244 0.011741393
0.97554672 -1.7237843 0.01212428
1.0263557 -1.7266458 0.011724692
1.0749418 -1.7240684 0.011392898
1.1253242 -1.7249179 0.011993332
1.1750208 -1.7247195 0.012115469
1.2249624 -1.7249562 0.011410403
1.2746738 -1.725402 0.011449906
1.324596 -1.7239566 0.011514161
1.3749176 -1.724799 0.011500219
1.4248756 -1.7247008 0.01145678
1.4752959 -1.7256713 0.011780414
-1.4746686 -1.6757972 0.012014695
-1.4237597 -1.6747822 0.011340712
-1.3765007 -1.6757463 0.011326808
-1.3285959 -1.67951 0.013089177
-1.2755989 -1.6735471 0.013846355
-1.2275686 -1.6782885 0.013114464
-1.1791167 -1.6763811 0.013829676
-1.1291028 -1.6750827 0.013052096
-1.0718746 -1.6705675 0.013363384
-1.0232126 -1.6750982 0.013210008
-0.97919643 -1.6680764 0.012590016
-0.92297071 -1.6727085 0.01304203
-0.87137914 -1.679 0.01299705
-0.82713431 -1.6716634 0.012478001
-0.77884316 -1.671136 0.01253343
-0.72345096 -1.676191 0.012733179
-0.67285258 -1.6728121 0.012698076
-0.6250242 -1.6731341 0.012696053
-0.57656693 -1.6750115 0.012530704
-0.5227195 -1.6722252 0.012485137
-0.47285917 -1.6721587 0.011858498
-0.42634839 -1.6702293 0.011705649
-0.37243018 -1.6725135 0.011726659
-0.32437354 -1.6744634 0.011818664
-0.27478993 -1.6750972 0.011840437
-0.22370954 -1.6756862 0.011993089
-0.1739607 -1.6749538 0.0119955
-0.12414497 -1.6756055 0.011453831
-0.075489722 -1.6757154 0.011974707
-0.024487047 -1.6760386 0.011309345
0.025889857 -1.674364 0.011552854
0.073339157 -1.6738036 0.011736668
0.12360293 -1.6758083 0.012447648
0.17429377 -1.6762077 0.012626587
0.22596417 -1.6750264 0.012261788
0.27569032 -1.6741101 0.011985993
0.32457283 -1.6759088 0.012211271
0.37433913 -1.6735466 0.011630738
0.42635772 -1.675385 0.011451435
0.47481212 -1.6745234 0.011589195
0.52647054 -1.6724466 0.012501724
0.57118511 -1.6702404 0.012658227
0.62709016 -1.672979 0.012803341
0.67363483 -1.6742098 0.013261267
0.72488254 -1.673161 0.012714005
0.77383763 -1.6759152 0.012645929
0.82143623 -1.674481 0.013219539
0.87564611 -1.6745708 0.012278647
0.92449981 -1.6741102 0.011963706
0.97659808 -1.6764723 0.011601136
1.0278583 -1.6745627 0.011789087
1.0759224 -1.6769388 0.011523466
1.1249328 -1.6750016 0.011586818
1.1757393 -1.674529 0.011727276
1.2249449 -1.6746427 0.011681261
1.2747217 -1.6755129 0.011514789
1.3266389 -1.675395 0.011374142
1.3751397 -1.6746287 0.011219221
1.4250243 -1.6757323 0.011529129
1.4754277 -1.6749558 0.012058157
-1.475319 -1.6259985 0.012049364
-1.4246093 -1.6248369 0.011607989
-1.3756737 -1.6249307 0.01243493
-1.3264503 -1.6284438 0.012752553
-1.2735918 -1.6237032 0.01298113
-1.2291217 -1.6221384 0.013256949
-1.1753305 -1.6247984 0.013066154
-1.1283056 -1.6228842 0.01287054
-1.0720793 -1.6255195 0.013213452
-1.0223941 -1.6238892 0.012517348
-0.97950315 -1.6251934 0.012840731
-0.92436624 -1.6264807 0.012696879
-0.86957687 -1.6217278 0.012825318
-0.82906795 -1.6286232 0.012508306
-0.77728218 -1.6234483 0.012305398
-0.72286934 -1.6231637 0.012328337
-0.67811787 -1.6262909 0.01277393
-0.62779951 -1.6258323 0.012336329
-0.57623476 -1.6260978 0.012109744
-0.52416909 -1.6236662 0.012002197
-0.47479048 -1.6262958 0.011718238
-0.42464757 -1.6209519 0.011675872
-0.37468758 -1.6260511 0.011616102
-0.3241899 -1.6247941 0.011651337
-0.27456868 -1.6246794 0.011808349
-0.22573206 -1.6266782 0.012121251
-0.17020035 -1.6252986 0.0120023
-0.1256379 -1.6233844 0.011928876
-0.07521788 -1.6244054 0.01171835
-0.024454927 -1.6253319 0.011802712
0.024493186 -1.6253613 0.011604232
0.074312717 -1.6250246 0.01137065
0.12366746 -1.6225994 0.012118802
0.17519012 -1.6251876 0.012097945
0.22479615 -1.6249927 0.012068026
0.27455047 -1.6255732 0.011767444
0.32595223 -1.6258342 0.011494468
0.37579402 -1.6242665 0.011283729
0.42413339 -1.625104 0.011776597
0.4745042 -1.6256621 0.011863735
0.52000231 -1.6217543 0.01265024
0.57530695 -1.6241547 0.013233495
0.62512577 -1.6231546 0.011889678
0.67229617 -1.6206131 0.012253453
0.72495008 -1.6248567 0.012019026
0.77393973 -1.6255288 0.01306496
0.82545733 -1.6262795 0.012783203
0.87215251 -1.6253642 0.011928642
0.92290789 -1.6248769 0.012846556
0.97535115 -1.6249712 0.011552878
1.0259563 -1.624844 0.011404777
1.0751947 -1.6244999 0.011175618
1.1224877 -1.6241361 0.011597122
1.1765877 -1.6275396 0.011567429
1.2246574 -1.6246004 0.011515697
1.2747892 -1.6250181 0.011682001
1.3250138 -1.6247504 0.01178749
1.3750434 -1.6264967 0.011447721
1.4248303 -1.6254187 0.011602632
1.4770581 -1.6264213 0.011572108
-1.4742024 -1.5755806 0.012531912
-1.4251713 -1.5756625 0.011687226
-1.3715512 -1.5707297 0.013157215
-1.3259917 -1.5808568 0.012887941
-1.2770665 -1.5762932 0.013217785
-1.2300558 -1.5734062 0.012900436
-1.1734308 -1.5777872 0.012848807
-1.1271491 -1.5767442 0.013145569
-1.0742657 -1.5760854 0.012381446
-1.0299273 -1.5735024 0.01277115
-0.97875404 -1.5733049 0.012405504
-0.92557919 -1.576311 0.012369456
-0.87525105 -1.5751483 0.012416605
-0.824812 -1.5741429 0.012024958
-0.7756381 -1.5742389 0.012314823
-0.72512645 -1.5744723 0.012336615
-0.67582995 -1.5749888 0.011824671
-0.62496477 -1.5744678 0.011566776
-0.57562888 -1.5747762 0.011556514
-0.52576917 -1.5759492 0.012095415
-0.4751507 -1.5751715 0.012188087
-0.42265585 -1.5771629 0.012240636
-0.37481338 -1.5748849 0.011474421
-0.32535058 -1.5746711 0.011413307
-0.27432993 -1.5754019 0.011878584
-0.22802898 -1.5744268 0.012014074
-0.1765545 -1.5773008 0.012358752
-0.12657884 -1.5768074 0.011602953
-0.076513775 -1.576081 0.011729056
-0.024225973 -1.5756812 0.011793192
0.025375552 -1.5755709 0.011941589
0.075180553 -1.5748941 0.011984818
0.12341761 -1.5751969 0.012367109
0.17216367 -1.5754026 0.012568451
0.22487736 -1.5730331 0.012432152
0.27552599 -1.5745881 0.012170858
0.32570848 -1.5733124 0.01244745
0.375579 -1.5750332 0.012328699
0.42453495 -1.575718 0.011627281
0.47596955 -1.5753516 0.0112806
0.52251774 -1.5719863 0.011573118
0.57613659 -1.5736932 0.011544834
0.62564051 -1.5739129 0.011081882
0.6760872 -1.5755521 0.011465015
0.72720659 -1.574707 0.011362802
0.77524835 -1.5745511 0.011367254
0.82391363 -1.5785657 0.012196992
0.8732689 -1.5758818 0.011907529
0.92419904 -1.5745975 0.011793799
0.9749586 -1.5751414 0.011957742
1.0237466 -1.5744832 0.011500164
1.0749726 -1.5743843 0.011576453
1.1226074 -1.5768001 0.011380025
1.1690838 -1.5754565 0.01192087
1.2272806 -1.5731927 0.012407099
1.2751452 -1.5762187 0.011834681
1.3246086 -1.5747677 0.011882075
1.3755965 -1.5759084 0.011798265
1.4224787 -1.5789655 0.011874322
1.4738134 -1.5767778 0.01162184
-1.4744674 -1.525113 0.01236594
-1.428111 -1.5284638 0.012743991
-1.3743086 -1.524139 0.013256414
-1.3283142 -1.5250247 0.012783275
-1.2727125 -1.5243244 0.012940098
-1.2241054 -1.5258309 0.012664556
-1.1749721 -1.5250419 0.012424211
-1.127129 -1.5247233 0.012791554
-1.0736128 -1.5243932 0.012773635
-1.0266452 -1.5240965 0.012219828
-0.97732383 -1.5238439 0.012385341
-0.92480677 -1.5238848 0.012777248
-0.87635899 -1.5263346 0.012450562
-0.82587713 -1.526342 0.012230189
-0.77338004 -1.5256763 0.012094419
-0.72378254 -1.5246435 0.012225219
-0.67481393 -1.5264466 0.011786264
-0.62599927 -1.5253532 0.011552515
-0.5745526 -1.5251836 0.0117195
-0.52596766 -1.5234054 0.011795475
-0.47517872 -1.5226053 0.01228274
-0.42642337 -1.5263343 0.012111208
-0.37383601 -1.526686 0.011793293
-0.32391626 -1.5255352 0.011627939
-0.2747471 -1.5252113 0.011504737
-0.22633915 -1.5238616 0.011499932
-0.17346542 -1.5271956 0.012181978
-0.12286025 -1.5243233 0.011706706
-0.076322295 -1.5247953 0.011633468
-0.025387345 -1.5252329 0.011943507
0.026235601 -1.5257552 0.011808186
0.07555563 -1.5241737 0.01248273
0.12492316 -1.5250872 0.012165454
0.17385074 -1.528541 0.011875934
0.22498167 -1.523803 0.011882166
0.27726573 -1.5241653 0.011894531
0.32514897 -1.5261223 0.011896384
0.37409118 -1.5239887 0.011876713
0.42432031 -1.5262779 0.011372441
0.4749552 -1.5262585 0.011576377
0.52586836 -1.5252384 0.011151719
0.57498735 -1.5244575 0.011573698
0.62363839 -1.5244365 0.011664436
0.67625099 -1.5259618 0.011090668
0.72392672 -1.5248319 0.011409487
0.77533275 -1.5250809 0.011172566
0.82611954 -1.5260051 0.011280446
0.87476534 -1.525808 0.011770934
0.92491746 -1.526722 0.011380301
0.9742915 -1.524614 0.011789051
1.0262406 -1.525018 0.011596892
1.0749491 -1.5246353 0.011348877
1.1211995 -1.5276127 0.011702713
1.1704658 -1.5267085 0.012942953
1.2221689 -1.5226526 0.012045232
1.272948 -1.5240457 0.01286274
1.3253216 -1.5249379 0.012187027
1.3770678 -1.5277362 0.012308257
1.4206979 -1.5258219 0.01218133
1.471622 -1.5284745 0.012439647
-1.4768914 -1.4781702 0.012483988
-1.4296472 -1.4785919 0.012574743
-1.37388 -1.4775491 0.013131094
-1.3279369 -1.4721867 0.012611853
-1.272283 -1.4730227 0.012906855
-1.2197213 -1.4752458 0.012739147
-1.1744113 -1.476295 0.012634169
-1.1240667 -1.4763714 0.012925955
-1.0749404 -1.472785 0.012342481
-1.0233785 -1.4767404 0.012376268
-0.97642398 -1.4741378 0.012257802
-0.92302787 -1.4738333 0.012604315
-0.87252623 -1.4756539 0.012134943
-0.82655215 -1.4765598 0.012411334
-0.77523404 -1.4756469 0.012205645
-0.72690493 -1.477155 0.01202592
-0.67539114 -1.4753616 0.011842119
-0.62288821 -1.4762422 0.011464505
-0.5742901 -1.4732357 0.0118469
-0.52473795 -1.4752054 0.01184269
-0.47427469 -1.4751294 0.012267565
-0.42467448 -1.4784999 0.011955134
-0.37456468 -1.4726933 0.011779726
-0.32448924 -1.4755918 0.012089292
-0.27393183 -1.4751641 0.011530965
-0.22540991 -1.4741185 0.011214524
-0.17542295 -1.4775016 0.011816966
-0.1224854 -1.475353 0.011829622
-0.076176845 -1.4745575 0.012265692
-0.023010038 -1.4775299 0.011724553
0.025658129 -1.4746615 0.012399665
0.075455785 -1.4732341 0.011826959
0.12488399 -1.4751626 0.011743532
0.17509235 -1.4762203 0.012132554
0.22193906 -1.4734279 0.011782886
0.27099451 -1.4749789 0.01157652
0.32630271 -1.4771518 0.0119081
0.37559095 -1.4728206 0.012239294
0.42383325 -1.4751908 0.01184197
0.47468215 -1.4753425 0.011190977
0.5245887 -1.4747313 0.01121261
0.57442743 -1.4743514 0.011352211
0.62466496 -1.4759651 0.011970123
0.67511177 -1.4748768 0.011261985
0.7257629 -1.4753891 0.01127826
0.77488619 -1.4750327 0.011390996
0.82398015 -1.4737256 0.01125649
0.87503892 -1.4746637 0.011292382
0.92362708 -1.4755939 0.011731139
0.97431922 -1.4753283 0.011330969
1.023187 -1.4757637 0.01191432
1.0745107 -1.4756356 0.011513438
1.1235425 -1.4731798 0.011695127
1.1751461 -1.4737859 0.012666088
1.2227818 -1.4736356 0.012121751
1.2744427 -1.4763044 0.012003204
1.3227463 -1.476815 0.012827944
1.3789989 -1.4687831 0.012524767
1.4221385 -1.4743485 0.012547113
1.470562 -1.4754977 0.012242795
-1.473739 -1.4270811 0.01288903
-1.4227172 -1.427404 0.012768833
-1.375752 -1.4242663 0.013200644
-1.3243266 -1.4231358 0.012707287
-1.2727952 -1.4226078 0.01289583
-1.2196321 -1.4212922 0.012433532
-1.177598 -1.4244893 0.012694193
-1.1222072 -1.4260136 0.012895753
-1.0772384 -1.424737 0.012482995
-1.0236092 -1.4259081 0.012260464
-0.97808814 -1.4251579 0.012462858
-0.92731243 -1.4222437 0.012474523
-0.87601632 -1.4259086 0.012604747
-0.82300615 -1.4252291 0.011802206
-0.77259982 -1.4237111 0.011849849
-0.72508436 -1.4248341 0.011777954
-0.67428941 -1.4242576 0.011669582
-0.62482989 -1.4254827 0.011568908
-0.57535857 -1.4250356 0.011809533
-0.52465242 -1.4242721 0.011407982
-0.47578496 -1.4244734 0.011811288
-0.42498767 -1.4237045 0.012160939
-0.37387246 -1.4237748 0.011856088
-0.32186246 -1.4243708 0.012017332
-0.27429816 -1.4268529 0.011623621
-0.22376139 -1.4250139 0.011534995
-0.17629191 -1.424597 0.011513293
-0.12534414 -1.4264914 0.012144974
-0.074493155 -1.4258687 0.012001009
-0.02533255 -1.4257821 0.012845348
0.025335049 -1.4236462 0.011991436
0.074860573 -1.4253988 0.011662166
0.12504356 -1.4271123 0.011763524
0.17684537 -1.4278278 0.012128519
0.22439887 -1.425491 0.012234868
0.27296391 -1.4230535 0.012100322
0.32442009 -1.4236375 0.012078274
0.37420985 -1.4267094 0.011804405
0.42557046 -1.4267102 0.011581201
0.47501493 -1.4252638 0.01135859
0.52521491 -1.4249871 0.011329412
0.57478249 -1.4251562 0.011477789
0.62496877 -1.4249002 0.011538213
0.67402476 -1.4241279 0.011227816
0.72496194 -1.4242064 0.011155412
0.7748571 -1.425048 0.011419785
0.82458746 -1.4259717 0.011401832
0.87488192 -1.4276887 0.011290421
0.92532283 -1.426343 0.011306876
0.97486526 -1.424513 0.011687906
1.0250378 -1.4253258 0.011332962
1.0751562 -1.4252297 0.011501578
1.1244352 -1.4245641 0.012316076
1.1757663 -1.4231534 0.011757291
1.2237815 -1.4228269 0.012661185
1.2693367 -1.4251385 0.012536303
1.3176109 -1.430231 0.012709665
1.3735033 -1.4245703 0.012332365
1.4257478 -1.425584 0.01240187
1.4595752 -1.4300374 0.012133683
-1.4744666 -1.3740815 0.013016445
-1.421567 -1.3742416 0.012987144
-1.3739506 -1.3720928 0.01263178
-1.325393 -1.3716981 0.012741515
-1.2787486 -1.3768556 0.012896047
-1.2267061 -1.3787376 0.01273951
-1.1719887 -1.3769114 0.012609011
-1.1271962 -1.3756269 0.012505639
-1.0756052 -1.3738484 0.012136517
-1.0261481 -1.3764496 0.012276792
-0.97653139 -1.3752903 0.012067152
-0.92404819 -1.3743857 0.012173542
-0.87250465 -1.3768917 0.012245758
-0.8254661 -1.3747967 0.011841902
-0.77444172 -1.3758659 0.011818229
-0.7262221 -1.3749642 0.011608925
-0.67559618 -1.3748899 0.01167749
-0.62513101 -1.3751838 0.011356879
-0.57528675 -1.3756573 0.011702618
-0.52458513 -1.3738334 0.011401394
-0.47636873 -1.3751754 0.011920732
-0.42496899 -1.3744683 0.012167827
-0.37404567 -1.3746277 0.012207466
-0.32431155 -1.3757836 0.011829615
-0.27488747 -1.3753833 0.011265196
-0.22704314 -1.3758895 0.011738433
-0.17393364 -1.3758533 0.011988123
-0.12366559 -1.3746698 0.011877045
-0.072501495 -1.3740255 0.012493092
-0.027103184 -1.3763829 0.012280517
0.024074636 -1.3763287 0.011943632
0.074182652 -1.3771496 0.0122563
0.12581909 -1.3708252 0.012120135
0.17566581 -1.374072 0.012061098
0.22720699 -1.3729091 0.012221817
0.27575633 -1.3756599 0.01242957
0.324617 -1.3771808 0.011945111
0.3758789 -1.3759443 0.011601868
0.4233751 -1.3761016 0.011345225
0.47517043 -1.3744788 0.011402619
0.52496076 -1.3746066 0.011272619
0.57482344 -1.3753418 0.011445402
0.62494069 -1.375334 0.011458489
0.67496598 -1.3745733 0.011348153
0.72441727 -1.3743681 0.011172061
0.77438265 -1.3761506 0.011234512
0.82741237 -1.3723304 0.011549694
0.87257951 -1.3761157 0.011304119
0.92515707 -1.3740805 0.011765616
0.97505903 -1.3745724 0.011201446
1.0247519 -1.3744826 0.011384862
1.0741844 -1.3746861 0.011347074
1.1242721 -1.3751887 0.012011307
1.1762575 -1.373762 0.011905714
1.2246766 -1.375363 0.012548002
1.2766222 -1.3768389 0.011802204
1.3283271 -1.3771062 0.0117556
1.3730637 -1.373996 0.012096158
1.4258312 -1.3741417 0.012195691
1.4802735 -1.3700008 0.012611712
-1.4764611 -1.3215343 0.012499917
-1.4258871 -1.3256291 0.013000638
-1.3820899 -1.3211602 0.01217009
-1.3207167 -1.3263686 0.012210434
-1.2735231 -1.3253286 0.012859274
-1.2248244 -1.3242223 0.012318719
-1.1725084 -1.3268354 0.012398371
-1.1266911 -1.3239962 0.012550024
-1.0753281 -1.3256071 0.012018217
-1.0246826 -1.3246878 0.011953581
-0.97176349 -1.3245476 0.012590307
-0.92705107 -1.3248286 0.012033307
-0.87519038 -1.3251185 0.01237831
-0.82502514 -1.3247265 0.011954348
-0.77486867 -1.3268021 0.011764365
-0.7247085 -1.3246115 0.011739165
-0.67460459 -1.3251351 0.011500146
-0.62426347 -1.3249545 0.011644203
-0.57485569 -1.3249261 0.011343633
-0.5249269 -1.3250889 0.011523991
-0.47593415 -1.3245405 0.012108959
-0.42538038 -1.3250253 0.011760357
-0.37629494 -1.3233181 0.01169048
-0.32522246 -1.3234283 0.012111479
-0.27901322 -1.3290383 0.011914681
-0.23084535 -1.3238368 0.012216717
-0.17914644 -1.324931 0.011864587
-0.12813514 -1.325045 0.012178875
-0.075798556 -1.324942 0.011903832
-0.029152101 -1.3293614 0.01173107
0.027852403 -1.3223145 0.012167187
0.0781224 -1.3266337 0.01230032
0.1250789 -1.3237609 0.012370924
0.17624854 -1.324784 0.012282848
0.2248437 -1.3266965 0.012643945
0.27470967 -1.3250293 0.012163551
0.32536712 -1.3261815 0.01183821
0.3764016 -1.3255416 0.012052449
0.42648408 -1.3235049 0.012096575
0.47441828 -1.3243538 0.011629745
0.52476311 -1.3260704 0.011601634
0.5752424 -1.3251016 0.011181652
0.62509561 -1.324917 0.011224137
0.67490488 -1.3248788 0.011553082
0.72521043 -1.3243841 0.011949024
0.77586257 -1.3267788 0.011640674
0.82316583 -1.3243484 0.011809722
0.87501913 -1.3258989 0.012243729
0.92598814 -1.3250794 0.012215687
0.97476572 -1.3256578 0.011226952
1.0251123 -1.3265473 0.011226153
1.0746925 -1.3246285 0.011639672
1.1248976 -1.3255342 0.012021691
1.1761422 -1.3236457 0.011805492
1.2227603 -1.3270439 0.01195572
1.2745706 -1.3249565 0.011877842
1.3237944 -1.3261919 0.011754489
1.3769166 -1.3246584 0.012264527
1.4234431 -1.3256789 0.012417251
1.4774115 -1.3228309 0.011793658
-1.4734819 -1.276252 0.012656985
-1.4258653 -1.2729471 0.012891901
-1.3787203 -1.2703568 0.01249547
-1.3274713 -1.2761415 0.012170409
-1.2754879 -1.2741586 0.012678076
-1.2249209 -1.2750279 0.012008616
-1.1719501 -1.2756857 0.012448836
-1.1208456 -1.2669601 0.019220782
-1.0765803 -1.2667766 0.019678976
-1.0235655 -1.2775022 0.012006145
-0.9705649 -1.2746643 0.012676096
-0.92626458 -1.2728808 0.01213351
-0.87213588 -1.2732987 0.012014077
-0.82277697 -1.2733481 0.011922496
-0.77479684 -1.2746899 0.012022953
-0.72538817 -1.2752017 0.011850093
-0.6749289 -1.2747028 0.011578232
-0.62502187 -1.2750491 0.011769304
-0.57483929 -1.2749559 0.011567134
-0.52665949 -1.2753474 0.011588779
-0.47775164 -1.2770813 0.01209149
-0.42491964 -1.2750438 0.012091218
-0.37195507 -1.2754641 0.012256953
-0.32406628 -1.2753251 0.012503907
-0.27852568 -1.2757962 0.012557213
-0.22861995 -1.2756062 0.012223034
-0.17080842 -1.2749308 0.012147828
-0.12745796 -1.275031 0.012434907
-0.07299538 -1.2751269 0.012522276
-0.025004424 -1.271606 0.015356458
0.020461721 -1.2727343 0.015815776
0.079285927 -1.2749665 0.011962336
0.12518257 -1.278811 0.012201044
0.17338841 -1.2759657 0.012472635
0.22593062 -1.2746946 0.011815731
0.27328718 -1.2747036 0.011762083
0.32431889 -1.2775609 0.011761308
0.37501505 -1.2749362 0.012395135
0.4254421 -1.2749928 0.012018918
0.47461441 -1.2747207 0.011918813
0.52387518 -1.2747111 0.011877608
0.5756675 -1.2746888 0.012384959
0.62502128 -1.2750881 0.011835897
0.67504334 -1.2754838 0.012204136
0.72488326 -1.2753172 0.012457461
0.77637738 -1.2737507 0.012417019
0.8250311 -1.2751639 0.012343516
0.8730911 -1.2767562 0.012119209
0.92684239 -1.2739013 0.011708518
0.97270477 -1.2747139 0.011430332
1.0244173 -1.2755975 0.011283369
1.0751092 -1.2740065 0.011518578
1.1241174 -1.2765476 0.011484755
1.1760837 -1.2769223 0.011756485
1.2253106 -1.275803 0.011603641
1.2757342 -1.2744731 0.0121481
1.324792 -1.2750754 0.012007911
1.3760743 -1.2725664 0.012089241
1.4272697 -1.2741054 0.011171
1.4748262 -1.2751584 0.01153258
-1.4764895 -1.2227906 0.012232118
-1.4278378 -1.2240442 0.012540211
-1.3727033 -1.2246504 0.012310688
-1.3254756 -1.2237562 0.012176972
-1.2731699 -1.2225664 0.012348671
-1.2259549 -1.2310008 0.012164576
-1.1801065 -1.2371489 0.011878762
-1.1273675 -1.2492627 0.027827114
-1.0636684 -1.2470353 0.030221069
-1.0214937 -1.2299378 0.028148232
-0.98235345 -1.2208222 0.019519677
-0.92549068 -1.226357 0.012264374
-0.87486798 -1.2257086 0.011953792
-0.82567912 -1.2243282 0.012139665
-0.77526009 -1.2253941 0.011821058
-0.72431296 -1.2242824 0.011762983
-0.67505044 -1.2253929 0.011643457
-0.62597102 -1.2260695 0.011637078
-0.57285172 -1.2248982 0.011637846
-0.52540529 -1.2249755 0.011415354
-0.47793433 -1.2223383 0.011914562
-0.42334184 -1.2244438 0.012483863
-0.37549549 -1.2273798 0.012632315
-0.32713404 -1.2224659 0.012217934
-0.27148637 -1.2234608 0.012367367
-0.22458483 -1.2205557 0.012307036
-0.17490864 -1.2294508 0.012444288
-0.12204275 -1.2201122 0.016000137
-0.080328993 -1.2322032 0.01953881
-0.029753515 -1.2472152 0.029226661
0.025347041 -1.2475237 0.027620105
0.075155988 -1.2303215 0.025359705
0.11963004 -1.2209035 0.01820262
0.17569283 -1.2257186 0.011907481
0.22359519 -1.2249656 0.011690655
0.27632654 -1.2218032 0.01199533
0.32462752 -1.2235382 0.012306185
0.37469628 -1.2249776 0.01243048
0.42387268 -1.2255214 0.012421381
0.47481647 -1.2258018 0.011915866
0.52553076 -1.225399 0.011646938
0.57582819 -1.2243874 0.011265076
0.62351006 -1.2250013 0.011686235
0.67686546 -1.226303 0.011582003
0.72568601 -1.226184 0.01238374
0.77542549 -1.2243108 0.01148587
0.82548159 -1.2250382 0.011228264
0.87386304 -1.2224065 0.011127693
0.92517382 -1.2234405 0.011322871
0.97789991 -1.2190673 0.016543295
1.0230653 -1.2275242 0.026297476
1.069924 -1.2427911 0.02960752
1.1247591 -1.2449757 0.030205958
1.1758257 -1.2306746 0.026280846
1.2245778 -1.2233268 0.015375686
1.2765685 -1.2232049 0.011548803
1.324455 -1.2231494 0.011444456
1.375373 -1.2238649 0.011222325
1.4249108 -1.2246324 0.011240941
1.4759955 -1.2270447 0.011695469
-1.4751701 -1.1746085 0.012148838
-1.4258724 -1.1748595 0.012129346
-1.3741271 -1.1747658 0.011655743
-1.3292347 -1.176394 0.011611274
-1.2740198 -1.1763197 0.011965455
-1.2278299 -1.1792749 0.023781121
-0.9689101 -1.1744032 0.026957069
-0.92424011 -1.1752266 0.012267773
-0.87430805 -1.1725494 0.012226658
-0.82460457 -1.1741426 0.012083592
-0.77417737 -1.1761389 0.011813611
-0.72545856 -1.1764721 0.011739022
-0.67524648 -1.1741298 0.011765943
-0.62600821 -1.1751028 0.011801566
-0.57463449 -1.1755733 0.011686123
-0.52509832 -1.1760987 0.011512418
-0.47255498 -1.1770494 0.012481501
-0.42325422 -1.1730288 0.012183068
-0.37443346 -1.1722375 0.012056586
-0.32371235 -1.177278 0.012308911
-0.27548251 -1.1714906 0.012328444
-0.23179628 -1.1764203 0.012676665
-0.17264368 -1.1908033 0.012716589
-0.12464324 -1.1770972 0.027238559
0.13100061 -1.1770966 0.027603403
0.1749524 -1.1779674 0.012338007
0.22469983 -1.1744868 0.012120637
0.27461562 -1.1759083 0.012175526
0.32595924 -1.1750194 0.011877828
0.37487933 -1.1755667 0.011783425
0.42523575 -1.1758301 0.011927136
0.47475946 -1.1751555 0.011566929
0.52559119 -1.1744276 0.011504904
0.57469982 -1.1744843 0.012038823
0.62358308 -1.1756315 0.011594609
0.6685828 -1.1705093 0.011552557
0.72900945 -1.1757599 0.01178509
0.77580458 -1.1748515 0.011849672
0.82524818 -1.1742845 0.011929287
0.87596023 -1.1754248 0.011148871
0.92490172 -1.1750283 0.011091526
0.97277999 -1.1771041 0.026707124
1.2313778 -1.1774398 0.024589714
1.2754171 -1.1765454 0.011141287
1.3237484 -1.1749176 0.011356194
1.3744489 -1.1759665 0.011428452
1.4253868 -1.1748956 0.011300821
1.4751332 -1.1743532 0.011544677
-1.4752153 -1.1280123 0.012000022
-1.4237064 -1.1253092 0.012081969
-1.375517 -1.1216075 0.011976573
-1.3245456 -1.1256441 0.011911395
-1.2709974 -1.1248868 0.012027655
-1.2445916 -1.126428 0.027551571
-0.95340979 -1.1239512 0.028953433
-0.92900991 -1.124513 0.019071765
-0.87425923 -1.1259501 0.011977607
-0.82512522 -1.1255063 0.011993297
-0.77261662 -1.1254107 0.0119646
-0.72382265 -1.1254619 0.011947265
-0.67606133 -1.1264505 0.011987123
-0.62525427 -1.1241187 0.01171735
-0.57673627 -1.1242923 0.011925716
-0.52571374 -1.1241702 0.012427385
-0.47662482 -1.1223472 0.012103606
-0.42588854 -1.1255814 0.011574339
-0.37430274 -1.1245174 0.011596407
-0.32361019 -1.1236728 0.012071914
-0.27435258 -1.1282834 0.012069906
-0.22403459 -1.1222142 0.012809565
-0.18225089 -1.1134098 0.014173493
-0.14389551 -1.1247442 0.029902648
0.14727214 -1.1243101 0.028412204
0.16866982 -1.1221977 0.018647021
0.22515149 -1.1264797 0.011971548
0.27499476 -1.125247 0.011777339
0.32497633 -1.1249098 0.011759156
0.37590945 -1.1239758 0.011509791
0.42426321 -1.1264155 0.011629632
0.47644275 -1.1243548 0.011912866
0.52366674 -1.1250609 0.012388987
0.57667643 -1.1270055 0.011761045
0.62440616 -1.1268326 0.011656332
0.67896569 -1.1255918 0.011545304
0.72552061 -1.1250471 0.0122324
0.77435476 -1.1249437 0.01162586
0.82400638 -1.1255466 0.011807968
0.87490332 -1.1251833 0.01182992
0.93239731 -1.12234 0.018155279
0.95662785 -1.1286585 0.02967925
1.2468649 -1.1330823 0.029354535
1.2674085 -1.1227847 0.017845206
1.3254696 -1.125639 0.01114708
1.3748046 -1.1246446 0.011214548
1.4241413 -1.1262789 0.011119881
1.4732414 -1.1259447 0.011565324
-1.4738311 -1.0733558 0.011742976
-1.4261928 -1.0734191 0.01162096
-1.3767092 -1.0730685 0.011484433
-1.3265928 -1.0776032 0.011828936
-1.2719342 -1.0755558 0.012219498
-1.2431761 -1.0702825 0.028441692
-0.95534039 -1.0709449 0.029518561
-0.92970377 -1.0763823 0.017689319
-0.87985259 -1.0726908 0.01224751
-0.82620639 -1.0789078 0.011946766
-0.77367723 -1.0747243 0.01216849
-0.72366017 -1.074219 0.012084292
-0.67795014 -1.0752923 0.011845417
-0.62848455 -1.0759617 0.011919992
-0.57693672 -1.0751908 0.012426606
-0.52826136 -1.070532 0.012144828
-0.47489887 -1.0748314 0.011894949
-0.42626524 -1.0759183 0.011532375
-0.3750256 -1.0758872 0.011607374
-0.32388559 -1.0755529 0.011293967
-0.27524748 -1.074059 0.011479815
-0.22368838 -1.0742519 0.012375413
-0.17776591 -1.0708203 0.012776429
-0.14413314 -1.0708838 0.030591924
0.1460097 -1.0708808 0.028779788
0.16683161 -1.0771505 0.019865485
0.22497156 -1.0746779 0.012412881
0.27564165 -1.0756856 0.012095877
0.32495686 -1.0749023 0.011489191
0.37361729 -1.073943 0.011696315
0.42593044 -1.0764061 0.011866605
0.47321683 -1.0764475 0.011921711
0.52476829 -1.0745047 0.012631409
0.57172024 -1.0755785 0.011814303
0.62764734 -1.0747824 0.011850795
0.67316908 -1.0746243 0.011791538
0.72451001 -1.0755279 0.011968586
0.77404082 -1.07646 0.011809165
0.82491392 -1.0749848 0.01172673
0.87565386 -1.0746673 0.011696097
0.93228716 -1.0761982 0.019755051
0.95485121 -1.0724401 0.030661279
1.2472069 -1.0676407 0.029703069
1.2690507 -1.0795133 0.017214358
1.3228511 -1.074793 0.011477383
1.3757685 -1.0737149 0.011697617
1.4259235 -1.0736135 0.012114293
1.4748895 -1.0748928 0.011284568
-1.4754605 -1.0236608 0.011868338
-1.4261642 -1.0226431 0.011917055
-1.3743942 -1.0240939 0.012165578
-1.32616 -1.0233686 0.011631524
-1.2746531 -1.023981 0.012332451
-1.2268882 -1.0204254 0.025094248
-0.97230059 -1.023275 0.027785357
-0.92736173 -1.0282904 0.012292635
-0.8738488 -1.0251882 0.012337461
-0.82569033 -1.0240762 0.012055252
-0.77503407 -1.0245616 0.01210786
-0.72384924 -1.0251616 0.011948057
-0.67426181 -1.0259671 0.012064845
-0.622989 -1.0287015 0.012497949
-0.57231218 -1.0258951 0.012236138
-0.52563822 -1.0253845 0.011959708
-0.47369006 -1.0251813 0.01154969
-0.42511815 -1.0267987 0.011748347
-0.37420321 -1.0265715 0.011344891
-0.32452691 -1.0244294 0.011483663
-0.27500659 -1.0247978 0.011719747
-0.22511528 -1.0253603 0.011300259
-0.17453797 -1.0254306 0.011800778
-0.12826389 -1.0219231 0.026591511
0.13202517 -1.0235047 0.027232569
0.1742529 -1.0240834 0.01169785
0.22521433 -1.0249443 0.012373544
0.27432895 -1.0254719 0.011886016
0.32459942 -1.0253793 0.01206472
0.37559223 -1.0246727 0.012256417
0.42516527 -1.0247254 0.012115656
0.47559446 -1.0255815 0.012139532
0.52362627 -1.0254896 0.012074299
0.57449508 -1.0240307 0.01306262
0.62544441 -1.024155 0.012134694
0.67522997 -1.0235754 0.012226881
0.72353631 -1.0249225 0.012131265
0.77478212 -1.0232129 0.01242801
0.82538849 -1.024778 0.011867688
0.87485904 -1.0247709 0.011642131
0.92574 -1.025578 0.012329117
0.96813691 -1.0242956 0.02905144
1.2324768 -1.0254819 0.027843388
1.2755759 -1.0282767 0.012000105
1.3243706 -1.0243728 0.012200269
1.3729568 -1.0234771 0.011619203
1.4228126 -1.0292983 0.011726674
1.47469 -1.024905 0.011689598
-1.4752611 -0.97507352 0.011556721
-1.4275253 -0.97288656 0.011643488
-1.3758544 -0.97572058 0.012071588
-1.3262975 -0.9752087 0.011968083
-1.2751864 -0.9759872 0.012367591
-1.2220869 -0.97779936 0.015482235
-1.1775777 -0.9720751 0.026682775
-1.1287059 -0.95579952 0.029735649
-1.071498 -0.95510745 0.030029036
-1.0220429 -0.97149861 0.027243074
-0.98074239 -0.97954303 0.018044516
-0.92602819 -0.9764846 0.012243978
-0.87244141 -0.97735071 0.01205583
-0.82672656 -0.97407138 0.012197458
-0.77376133 -0.97781402 0.012061735
-0.72584671 -0.97681957 0.012370486
-0.67666006 -0.97537506 0.012710943
-0.62415421 -0.97523117 0.012098827
-0.5756135 -0.97618949 0.011774855
-0.52477264 -0.97400218 0.01171842
-0.47453746 -0.97721481 0.011835147
-0.42387477 -0.97457826 0.011773736
-0.37346604 -0.97646296 0.011743884
-0.32649666 -0.97524714 0.011718294
-0.27326396 -0.97538888 0.011426211
-0.22529875 -0.97461367 0.01153401
-0.17551082 -0.97587323 0.011897721
-0.11893599 -0.98212045 0.018817941
-0.077422455 -0.97033709 0.027078286
-0.028735986 -0.9549222 0.029917801
0.024900893 -0.95335752 0.029987592
0.075614676 -0.96869111 0.027187811
0.11985022 -0.97988647 0.018199394
0.17463697 -0.97498369 0.011906539
0.22441955 -0.975811 0.011618423
0.27491257 -0.97456247 0.011901493
0.3252185 -0.97506905 0.01169206
0.3751052 -0.97513694 0.012257058
0.42447206 -0.9745093 0.012105938
0.47328073 -0.97603852 0.011878775
0.52600694 -0.97440296 0.013153062
0.57306421 -0.97564977 0.013150971
0.62663704 -0.97402531 0.013276264
0.67313904 -0.97673881 0.0131249
0.72556216 -0.97486275 0.012922945
0.7750392 -0.97462881 0.011785831
0.82508272 -0.97483718 0.011579596
0.87473768 -0.97537041 0.011563011
0.92618948 -0.97413832 0.011967126
0.97929925 -0.98128963 0.019819725
1.0223616 -0.96997279 0.028748784
1.0720493 -0.955064 0.028883159
1.1245272 -0.95428705 0.03037863
1.1761994 -0.96916735 0.027442532
1.2152762 -0.98443294 0.018568588
1.284615 -0.97783637 0.011542916
1.3254952 -0.97309756 0.012401255
1.371559 -0.97434056 0.012097123
1.426914 -0.9760862 0.011730825
1.4759425 -0.97805804 0.011746866
-1.4741825 -0.92508936 0.011556274
-1.4258872 -0.92343217 0.01162715
-1.3759382 -0.9232561 0.011668944
-1.3271035 -0.9259299 0.011633962
-1.2760861 -0.92476636 0.011675832
-1.2242801 -0.92641169 0.011975559
-1.1762803 -0.92651898 0.011989212
-1.1207911 -0.93060648 0.016436908
-1.0779679 -0.9334746 0.017956626
-1.0253683 -0.92659158 0.012412082
-0.97390676 -0.92469138 0.012441725
-0.92434657 -0.92546833 0.012127996
-0.87632787 -0.92437088 0.012113296
-0.82591158 -0.92595845 0.012207041
-0.77867121 -0.92404068 0.012589315
-0.72727263 -0.92447573 0.012252247
-0.6728611 -0.92428923 0.012149485
-0.62243849 -0.92471069 0.011843693
-0.57610536 -0.92357063 0.011906997
-0.52781039 -0.92584276 0.011982432
-0.4740952 -0.92575628 0.011818457
-0.42293015 -0.92772073 0.011650684
-0.37520841 -0.92628843 0.011553659
-0.32637435 -0.92315137 0.011895165
-0.27605772 -0.92280877 0.011876154
-0.22566487 -0.92540658 0.011811775
-0.17536138 -0.92543298 0.011992058
-0.12486412 -0.92597061 0.011715304
-0.074065432 -0.92507797 0.011851355
-0.021192256 -0.93181443 0.01816833
0.021924959 -0.93127584 0.017506476
0.075164229 -0.92516738 0.011801384
0.12469955 -0.92538828 0.01171262
0.17486803 -0.92481744 0.011979499
0.22604524 -0.92496592 0.011374466
0.27503166 -0.92458761 0.011687381
0.32554296 -0.92576367 0.012216334
0.37407053 -0.9258728 0.01250754
0.42382661 -0.92509925 0.012499608
0.47395083 -0.92606133 0.012804126
0.52420443 -0.92598844 0.012893635
0.5775305 -0.92491657 0.012660274
0.62609279 -0.92729777 0.012046906
0.67680651 -0.92241746 0.01192598
0.72509789 -0.92517638 0.01173695
0.77649099 -0.92460752 0.011580933
0.82510149 -0.92471266 0.011340099
0.87488747 -0.92493981 0.011500379
0.92546374 -0.92548579 0.011930942
0.97481537 -0.9240225 0.011585354
1.0237488 -0.92636448 0.012035516
1.0758697 -0.93340886 0.022904081
1.1224663 -0.93441319 0.021213613
1.1569334 -0.93032229 0.013375113
1.228207 -0.91970116 0.014400979
1.2774571 -0.92177302 0.012476779
1.3238997 -0.92586219 0.012444116
1.3776518 -0.92804092 0.012163145
1.4225503 -0.92366219 0.012018256
1.475385 -0.92112714 0.011764841
-1.4752716 -0.8750962 0.011392402
-1.4253879 -0.87507826 0.011463953
-1.3751041 -0.8752408 0.011508351
-1.3254226 -0.87550133 0.011824689
-1.2744629 -0.87285322 0.011797507
-1.2255253 -0.87508476 0.011945653
-1.1754974 -0.87441844 0.012128711
-1.1265451 -0.8738783 0.012267504
-1.0771321 -0.87459701 0.012074217
-1.024386 -0.87627459 0.011917848
-0.97538012 -0.87399864 0.01208663
-0.92528325 -0.87307233 0.011969965
-0.87672269 -0.87528908 0.012035115
-0.82385099 -0.87383306 0.012350605
-0.77535295 -0.87038618 0.01223289
-0.72301149 -0.87261426 0.012119923
-0.67668933 -0.87418014 0.011838159
-0.62961227 -0.87288135 0.011814998
-0.57515949 -0.87709016 0.011997391
-0.52462071 -0.87711734 0.011643818
-0.47524923 -0.87508571 0.011742462
-0.42515954 -0.8746742 0.011925485
-0.37375408 -0.87453717 0.011596194
-0.32545441 -0.87521738 0.011804249
-0.27605957 -0.8753835 0.011804159
-0.22550586 -0.87368882 0.012276435
-0.17121792 -0.87537497 0.012721711
-0.12350551 -0.87863553 0.011923221
-0.07408116 -0.87557369 0.011592454
-0.025197489 -0.87494814 0.011592808
0.024802377 -0.87595367 0.011915536
0.074335732 -0.87508947 0.011996391
0.12575226 -0.87535268 0.012190509
0.17489304 -0.87528634 0.012254249
0.22606288 -0.87653136 0.012266397
0.2741811 -0.87594342 0.012002845
0.32661664 -0.87405068 0.012496803
0.37437439 -0.87540299 0.012109019
0.4243162 -0.87568444 0.012028198
0.47596839 -0.87419218 0.01207081
0.52496046 -0.87491858 0.012201852
0.57591033 -0.87232172 0.011636397
0.62579858 -0.87410814 0.011747505
0.67515367 -0.87542796 0.011449006
0.7248407 -0.87474424 0.012049045
0.77517837 -0.87497473 0.011811909
0.82497382 -0.87468034 0.011334729
0.87443376 -0.87449241 0.011413054
0.92457861 -0.87597317 0.011976653
0.97544444 -0.87391835 0.011890655
1.0264506 -0.87470961 0.011932069
1.0746852 -0.87430233 0.012167685
1.122033 -0.87107748 0.011819319
1.18057 -0.87120324 0.013327123
1.2219442 -0.88136363 0.013417529
1.282691 -0.87829894 0.012888293
1.3253973 -0.87324005 0.012208479
1.3729579 -0.87214875 0.012532157
1.4230304 -0.87539524 0.012293225
1.4716743 -0.87218028 0.011945796
-1.474713 -0.82545823 0.011487621
-1.4251317 -0.82541877 0.011555772
-1.3748682 -0.82526517 0.01148255
-1.3254139 -0.82519019 0.011767331
-1.2753071 -0.82511348 0.011603317
-1.2242817 -0.82540947 0.012084034
-1.1754198 -0.82525182 0.011982143
-1.1244298 -0.82560712 0.011708864
-1.0748448 -0.82541776 0.011945225
-1.0244988 -0.8259182 0.011962804
-0.97435051 -0.82580441 0.011999533
-0.92431706 -0.82517862 0.011733797
-0.87492561 -0.82314843 0.012166847
-0.8239978 -0.82596189 0.011982258
-0.77883029 -0.82467872 0.011962279
-0.72619039 -0.82573271 0.011786396
-0.67578918 -0.82328415 0.011804754
-0.62630326 -0.82665521 0.011816419
-0.57566595 -0.82701206 0.011735745
-0.52535808 -0.82633543 0.011841109
-0.47484031 -0.82464671 0.01184011
-0.42247221 -0.82463413 0.011709656
-0.37424245 -0.82528901 0.011724092
-0.32440475 -0.82465005 0.01192271
-0.27517214 -0.82581705 0.011725575
-0.23000135 -0.82317227 0.01171564
-0.17547187 -0.82492989 0.012658307
-0.12214502 -0.8226015 0.013056837
-0.076044329 -0.82490951 0.012293017
-0.025440354 -0.82762372 0.012176936
0.026215114 -0.82593459 0.012556473
0.073698096 -0.82597345 0.012038958
0.12571913 -0.82617074 0.012148085
0.17600515 -0.82128078 0.01212797
0.22602117 -0.8246296 0.011882897
0.2744514 -0.82598072 0.012053077
0.32501557 -0.8253454 0.012089194
0.37599933 -0.82585615 0.011735271
0.42373127 -0.82537872 0.011563174
0.47379455 -0.82473755 0.011713706
0.52403682 -0.82412142 0.011768601
0.57418025 -0.82652044 0.011310625
0.62491614 -0.82389396 0.011608021
0.67487031 -0.8255527 0.011496105
0.72482568 -0.82412457 0.011737646
0.77482253 -0.82465911 0.011469544
0.82490081 -0.82483697 0.011738155
0.8747009 -0.82534826 0.011656132
0.92589813 -0.82459646 0.011752568
0.97507554 -0.82516569 0.011892078
1.0222826 -0.82423806 0.012080085
1.0760859 -0.82549769 0.012380503
1.1259547 -0.82479095 0.011991303
1.1678667 -0.82767338 0.012287687
1.223395 -0.82135206 0.013861716
1.2745767 -0.82166499 0.012646826
1.3238605 -0.82662159 0.012792501
1.3712273 -0.82383031 0.01301996
1.4274902 -0.82058352 0.011979237
1.4730784 -0.82701242 0.012569854
-1.4745293 -0.77497786 0.011718159
-1.4249792 -0.77507615 0.011392366
-1.3751446 -0.77516359 0.011389632
-1.32479 -0.77544343 0.011792365
-1.2750553 -0.77467173 0.011978114
-1.2252853 -0.77529854 0.012135795
-1.1751271 -0.77520478 0.0120945
-1.1255108 -0.77434653 0.011576587
-1.0753396 -0.77488929 0.011670837
-1.0249345 -0.7755726 0.011559805
-0.97482663 -0.77498633 0.011828796
-0.92398232 -0.77432591 0.012033123
-0.87421519 -0.77465159 0.011643577
-0.82393622 -0.77522194 0.011605178
-0.77414268 -0.77598208 0.0116691
-0.7241441 -0.77482492 0.011740267
-0.67480284 -0.77470785 0.011679056
-0.62749273 -0.7746526 0.011651357
-0.5762471 -0.772627 0.011591682
-0.52653325 -0.77289337 0.011713075
-0.47326696 -0.7730189 0.011828054
-0.42309594 -0.77456683 0.011994638
-0.37550521 -0.77605456 0.012002823
-0.32595736 -0.77419198 0.011776948
-0.27366549 -0.77515262 0.011878435
-0.22465795 -0.77603054 0.011601764
-0.17365348 -0.77494192 0.011908663
-0.12988736 -0.77256483 0.012005564
-0.074341163 -0.77571517 0.012899867
-0.024224129 -0.77717143 0.012743703
0.023388045 -0.77501559 0.012160803
0.074019521 -0.774737 0.012138131
0.12369832 -0.77445859 0.011916743
0.17615964 -0.77464253 0.012240111
0.22463365 -0.77328426 0.011587091
0.27549744 -0.77388692 0.011932898
0.32329062 -0.7740702 0.011980122
0.37664011 -0.77447248 0.011621259
0.42518345 -0.77548683 0.011984756
0.47462067 -0.77447462 0.011996362
0.52421862 -0.7750749 0.011860762
0.57594669 -0.77521521 0.01160211
0.62536162 -0.77508688 0.011839114
0.67487639 -0.77477479 0.01143751
0.72486496 -0.77524614 0.011498639
0.77497232 -0.77498037 0.01165756
0.82510072 -0.77506256 0.011983263
0.87510085 -0.77529311 0.012102322
0.92515218 -0.77504927 0.01223227
0.97313505 -0.77525812 0.012097779
1.0278789 -0.77586257 0.012133967
1.0754569 -0.77572769 0.012429251
1.1243756 -0.7762754 0.012287706
1.1759318 -0.7772308 0.011877511
1.2215447 -0.77740484 0.012911079
1.2748617 -0.77209115 0.012778208
1.326412 -0.77290064 0.011992489
1.3753749 -0.77641928 0.012921532
1.4232391 -0.77419508 0.01267089
1.4732134 -0.77355695 0.012010843
-1.475922 -0.7261737 0.012188471
-1.4247067 -0.72458303 0.01155185
-1.3746551 -0.72537178 0.011405727
-1.3249192 -0.7247507 0.011715702
-1.275453 -0.72427726 0.01184705
-1.2250026 -0.72574997 0.011943744
-1.1749169 -0.72468054 0.011728956
-1.1247927 -0.72492653 0.011677916
-1.0749184 -0.72515404 0.011790787
-1.0248948 -0.72471529 0.011665
-0.97346818 -0.72360045 0.012162057
-0.92601317 -0.72513372 0.011824071
